ply
format ascii 1.0
element vertex 1226
property float x
property float y
property float z
property uint8 red
property uint8 green
property uint8 blue
end_header
-0.957901 2.246119 -1.116900 182 119 22
-0.498525 2.363315 -1.937159 36 37 42
-0.983914 2.317616 -0.992786 97 57 4
-0.548627 2.156470 -2.122630 5 9 15
-1.219659 2.195370 -1.188607 139 93 17
-0.548627 2.156470 -2.122630 5 9 15
-1.167143 2.172931 -1.485575 96 72 54
-0.798380 1.875850 -2.304061 83 97 126
-1.012895 2.507622 -1.002293 83 42 2
-0.537961 2.164052 -2.320564 1 3 4
-0.536323 2.190659 -2.085288 0 0 0
-0.347501 2.240978 -2.415298 76 57 53
-1.312396 2.493833 -1.267231 82 67 65
-1.656385 2.175594 -2.555049 161 130 118
-1.308182 2.534285 -1.228712 164 159 174
-0.718257 1.641067 -0.481678 115 129 162
-1.382621 2.242692 -2.066692 84 66 63
-1.276629 1.859928 -0.441053 133 104 26
-1.326841 2.522192 -1.357576 66 55 58
-0.666993 1.685446 -0.587551 113 93 24
-1.390809 2.271794 -2.162271 80 63 64
-1.201018 1.826152 -0.832168 103 112 135
-1.390809 2.271794 -2.162271 80 63 64
-0.179204 3.210614 -0.392969 89 81 68
-1.294621 2.625213 -1.344904 78 67 67
-0.983801 1.329359 -1.603736 255 236 84
-1.028254 1.617707 -0.447937 231 237 253
-0.671584 1.602259 -1.551798 63 78 110
-1.284633 1.876218 -0.320664 255 194 54
-0.304494 2.647439 -1.471706 33 20 14
-1.271062 2.018520 -0.293386 255 195 55
-0.769676 1.592359 -2.049892 119 107 31
-1.188848 1.457385 -1.915152 166 88 16
-0.580709 2.111521 -2.284588 4 5 8
-1.227958 1.645454 -1.496745 54 42 41
-0.356777 2.241443 -2.474600 80 79 73
-0.794822 1.702809 -1.532750 123 84 18
-1.701380 2.160148 -2.578886 167 131 114
-1.083025 2.159644 -1.083327 66 56 52
-1.343675 2.189778 -2.616051 208 200 175
-1.289967 2.013686 -1.578620 59 47 46
-0.594950 1.634125 -0.485959 94 108 140
-1.228572 2.014595 -1.685941 159 126 107
-1.134230 1.837945 -0.485321 126 105 36
-1.248532 2.039491 -1.934451 12 9 9
-1.247869 2.102456 -1.791293 106 50 3
-1.111370 1.727798 -0.835840 156 117 25
-1.244495 2.162975 -1.656718 95 47 3
-0.270560 3.118431 -0.586005 108 98 82
-1.014271 2.558404 -1.139614 137 68 7
-0.577905 1.889936 -1.719420 12 14 19
-1.381566 2.211478 -1.964453 80 60 55
-1.166925 1.598451 -2.038937 103 79 16
-1.283371 2.428922 -1.553141 96 55 5
-0.448151 2.155858 -2.666021 94 101 96
-1.302526 2.542055 -1.256914 74 59 53
-1.093630 1.724783 -0.746172 31 28 28
-1.310441 2.570398 -1.186125 66 54 48
-0.940399 2.027826 -0.584229 133 92 26
-1.317277 2.538307 -1.414371 67 57 56
-1.055216 1.995846 -0.798371 109 82 23
-1.303151 2.637560 -1.223527 78 63 58
-0.232315 2.638945 -1.558041 22 16 14
-1.319157 2.692070 -1.336673 128 117 122
-1.205969 1.761493 -2.136812 123 110 31
-1.288124 1.903300 -0.221709 255 198 55
-0.899082 2.293480 -2.355132 51 53 47
-1.135493 1.855509 -1.530215 170 94 16
-1.075664 2.222483 -2.483729 77 68 52
-1.267439 1.827921 -2.036027 252 193 52
-0.448977 2.226396 -2.487464 100 101 89
-1.172952 2.186284 -1.144017 25 24 25
-0.661596 1.670056 -0.507255 56 63 78
-1.027070 2.567272 -1.172432 249 185 45
-0.702205 1.652290 -0.570444 147 157 184
-1.251985 2.221935 -2.384031 14 11 11
-1.317702 2.585274 -1.392892 157 149 162
-0.993892 1.338473 -1.782233 168 128 30
-0.954134 1.306662 -1.635363 135 2 0
-1.296909 1.840861 -1.791112 255 244 61
-0.734296 1.878111 -2.249054 56 52 18
-1.353284 2.271190 -1.971411 142 131 142
-0.379364 2.328009 -2.225129 24 18 16
-0.229488 3.084908 -0.600449 109 71 52
-0.887913 2.369699 -0.834744 125 111 107
-0.394585 2.246622 -2.389056 47 38 39
-1.272871 2.128835 -1.603320 255 232 61
-0.505467 1.698418 -0.393444 119 105 42
-1.378973 2.079873 -2.136125 123 110 116
-0.504653 1.759732 -0.437262 115 104 41
-1.267073 2.382220 -1.579444 196 136 33
-0.399800 2.509370 -1.184691 5 5 5
-1.300185 2.527013 -1.197029 150 144 157
-0.817003 1.332572 -1.827456 107 84 18
-1.295434 2.619947 -1.194926 131 129 141
-0.347496 2.312769 -2.168205 78 59 54
-1.587710 2.730885 -1.401826 105 67 51
-0.872805 2.284098 -2.365232 80 84 79
-1.372629 2.157165 -1.959243 132 122 131
-0.513925 2.276546 -2.385730 87 95 94
-1.317092 2.428929 -1.337717 133 120 128
-0.690526 1.691379 -0.578970 19 27 39
-1.280252 2.405222 -1.503612 193 134 33
-1.387816 2.230553 -2.200324 132 122 130
-1.264973 2.465272 -1.631208 211 152 37
-1.625198 2.415545 -1.988646 62 50 46
-1.565919 2.662275 -1.404337 159 104 77
-1.469917 2.241319 -2.374063 246 231 200
-1.462925 2.778079 -1.262418 221 205 166
-0.615164 1.647671 -0.488023 29 30 35
-0.395458 2.080974 -0.132169 0 0 0
-1.672648 2.525439 -1.717134 0 0 0
-0.908944 2.324887 -1.118837 4 4 5
-0.422691 2.503615 -1.205523 27 30 38
-0.055047 3.120814 -0.414099 0 0 0
-0.969121 1.791830 -2.070933 126 101 28
-0.857883 1.306887 -2.020247 255 217 57
-1.486466 2.291592 -2.299400 237 227 197
-1.124017 2.156980 -1.150880 255 195 54
-1.212292 2.552912 -1.447717 149 139 148
-1.039473 1.747628 -1.124986 0 0 0
-0.855675 2.232423 -2.488140 74 81 78
-0.949579 2.130690 -1.048059 225 160 43
-0.899076 2.313491 -2.340219 53 54 46
-0.662727 2.508728 -0.620781 0 0 0
-0.487268 2.042941 -0.285862 255 227 59
-1.500267 2.815742 -1.170821 173 159 131
-0.864731 1.177391 -0.179014 255 228 65
-0.990861 2.237184 -0.876296 218 154 40
-0.702960 1.614872 -0.465507 195 203 228
-1.305465 2.584195 -1.251564 84 68 70
-1.097153 1.990037 -0.578250 232 210 175
-1.098344 3.090817 -0.462385 234 201 154
-0.907501 1.860813 -1.545033 114 82 27
-1.098344 3.090817 -0.462385 234 201 154
-1.368746 3.010910 -0.828358 108 102 88
-0.552877 1.818417 -2.120250 169 162 172
-1.390417 3.025707 -0.763429 96 87 70
-0.552877 1.818417 -2.120250 169 162 172
-1.127772 1.507710 -1.461352 255 251 71
-1.169710 2.054197 -0.770045 227 167 49
-1.282688 2.439123 -1.164914 25 21 20
-1.128178 2.099056 -0.761279 189 110 17
-1.490574 2.959392 -0.773300 68 47 42
-1.166774 2.150123 -1.593029 169 104 18
-1.524527 2.921937 -0.934379 45 33 33
-1.286723 2.135722 -1.600786 254 196 55
-1.524527 2.921937 -0.934379 45 33 33
-1.392985 2.117326 -2.139090 149 140 151
-1.462343 2.894053 -1.082153 120 111 96
-1.389208 2.167388 -2.137800 66 54 54
-0.784781 2.388443 -1.817762 148 136 146
-1.496974 2.649441 -1.445832 62 45 41
-1.322939 2.294664 -1.872593 34 26 20
-1.649878 2.211320 -2.485860 129 89 68
-1.361319 2.297467 -1.856930 34 22 10
-0.530036 2.120025 -0.159567 0 0 0
-1.358093 2.294832 -1.873140 145 134 140
-0.546875 2.070281 -0.242637 255 220 61
-1.355432 2.325746 -1.982796 83 67 64
-0.949365 1.702882 -0.351110 151 134 44
-1.371266 2.337036 -2.048892 138 127 138
-1.014938 1.636780 -0.429575 187 197 220
-1.560130 2.283638 -2.110081 138 121 98
-1.028078 2.084340 -0.979041 77 71 79
-1.303637 2.643800 -1.296376 53 47 47
-1.336226 3.188650 -0.437299 124 115 97
-1.303637 2.643800 -1.296376 53 47 47
-0.905823 1.953270 -1.469402 169 131 43
-1.284116 2.095136 -0.264598 121 69 4
-0.938624 1.979929 -1.408592 177 139 37
-1.389094 2.197521 -2.090692 155 148 160
-1.234055 1.929649 -1.023548 196 200 222
-1.380964 2.234887 -2.007496 67 54 53
-1.499961 3.071741 -0.610715 69 44 38
-1.380964 2.234887 -2.007496 67 54 53
-1.499930 3.072614 -0.611153 69 44 38
-1.313615 2.559251 -1.270849 162 157 171
-1.104343 1.472660 -1.524249 255 189 41
-1.318693 2.547522 -1.321300 58 45 45
-1.271498 2.481749 -1.193301 78 83 103
-1.383777 2.299142 -2.144316 99 78 76
-1.425594 2.914267 -1.031272 204 188 151
-1.377383 2.316035 -2.128417 176 174 193
-1.404579 2.886988 -1.082252 229 213 174
-1.142307 2.149918 -1.597865 67 41 29
-1.320209 2.174301 -2.593619 198 189 159
-1.300788 2.548265 -1.192529 169 168 185
-0.408077 2.162828 -0.074733 198 130 27
-1.318643 2.530567 -1.388990 159 151 165
-1.580621 2.297029 -2.103383 26 25 26
-1.378536 2.230089 -2.017617 77 60 59
-0.837947 1.639661 -0.466640 17 19 23
-1.380200 2.231313 -2.014905 77 60 59
-0.601729 1.908094 -1.118852 57 66 84
-1.320300 2.524914 -1.360264 67 51 47
-1.023632 2.011935 -1.381140 170 130 41
-0.715313 2.277922 -0.811312 0 0 0
-0.825947 1.300215 -1.921016 103 85 18
-0.999970 2.526134 -0.982843 162 153 164
-1.382656 3.036240 -0.753060 213 198 164
-1.310216 2.604768 -1.284391 87 63 53
-1.475251 2.852262 -1.151971 136 119 92
-1.306848 2.649832 -1.270597 151 140 148
-1.431296 2.698538 -1.483000 95 90 79
-1.495002 2.873712 -1.040141 239 219 174
-1.190139 1.535090 -1.984467 255 212 62
-1.550226 2.638910 -1.511643 44 33 33
-1.318386 2.522209 -1.281035 153 147 164
-1.361066 2.032387 -1.982538 28 29 32
-1.320095 2.691621 -1.242810 125 124 138
-1.541194 2.301245 -2.338690 214 200 165
-1.176808 1.432356 -1.883086 254 197 57
-1.357699 1.856833 -2.134861 0 0 0
-0.821152 2.095634 -0.192109 255 225 66
-0.727994 1.573053 -1.460286 0 0 0
-1.018953 2.409243 -0.025191 255 229 72
-1.236502 1.620362 -1.987142 202 200 216
-1.023675 2.115740 -0.138942 255 227 67
-1.339474 2.094495 -1.900521 18 15 14
-0.860415 1.927911 -1.519318 147 117 41
-1.508224 2.016124 -2.283986 0 0 0
-1.333040 3.164824 -0.456530 231 218 180
-1.087071 1.900968 -0.265515 200 132 41
-1.408847 3.222234 -0.370932 126 120 104
-1.127930 1.760956 -0.778077 219 189 104
-1.383107 3.107319 -0.583441 80 77 69
-1.324417 2.473321 -1.375992 79 70 73
-0.426411 2.141653 -2.680392 152 151 136
-1.157733 1.571152 -1.496969 72 58 55
-1.349018 3.000604 -0.835464 226 210 171
-1.270109 1.661665 -2.025040 154 149 162
-1.082841 1.472919 -1.519366 255 233 70
-0.786890 2.402861 -1.821094 86 78 83
-1.468629 2.843411 -1.170361 231 213 175
-1.169866 1.599344 -1.482616 171 165 165
-0.395503 2.159316 -0.062057 255 230 70
-0.608887 1.803104 -1.887938 193 165 47
-0.548889 1.732731 -0.415378 160 129 31
-0.630019 2.136994 -1.162675 136 107 25
-0.881716 1.417197 -1.595090 255 228 70
-0.313546 2.334645 -1.453988 0 0 0
-0.218880 2.548459 -1.722993 43 36 39
-0.449900 2.210309 -2.199179 5 5 7
-1.100048 1.808356 -0.727443 135 112 37
-0.393126 2.468853 -1.248613 0 0 0
-1.229597 3.107180 -0.614679 231 216 179
-0.743490 2.455728 -0.947548 67 76 102
-1.307058 3.062563 -0.672732 230 216 178
-1.279863 2.565247 -1.115875 0 0 0
-1.305779 3.083285 -0.675515 230 216 178
-0.834635 2.635501 -1.965011 11 11 14
-1.478401 3.167624 -0.484900 67 47 42
-0.577338 2.215276 -2.200818 0 0 0
-0.922858 1.446633 -1.562432 255 232 72
-0.499554 2.466151 -1.297362 31 33 47
-1.000179 1.436459 -1.550008 255 236 74
-1.441197 2.906532 -1.055207 142 134 116
-1.069745 1.445254 -1.548773 255 235 74
-0.751381 3.086489 -0.614557 120 106 80
-1.019080 1.937830 -1.077686 161 144 52
-0.592972 1.870098 -1.774808 93 69 13
-1.431875 2.713255 -1.448973 217 200 163
-0.654319 1.911168 -1.682735 59 61 75
-0.420845 2.634345 -1.392136 0 0 0
-1.004932 2.160764 -0.102276 0 0 0
-0.037794 1.913077 -1.315251 1 2 3
-1.004932 2.160764 -0.102276 0 0 0
-0.585370 2.449332 -1.313328 44 34 24
-1.061798 1.568222 -1.751542 255 230 71
-1.474651 2.899024 -1.027024 57 43 44
-1.364967 2.086331 -2.169262 15 17 22
-1.495161 3.022041 -0.676380 141 92 63
-1.322274 2.196475 -1.390034 23 28 36
-1.480183 3.017754 -0.688455 144 94 66
-1.483433 3.021233 -0.693457 144 94 66
-0.804707 2.194881 0.059658 0 0 0
-1.502131 3.026515 -0.655898 62 33 22
-1.489729 3.078112 -0.625654 138 89 60
-1.506004 2.943653 -0.844607 176 151 138
-0.819482 2.811072 -1.177449 96 81 63
-0.813761 2.243247 -0.859838 126 93 26
-1.005186 1.547849 -1.426016 134 79 11
-1.049549 1.995520 -1.417900 149 120 37
-1.001851 1.547887 -1.423702 134 79 11
-0.733781 1.546099 -1.499822 255 227 63
-1.613877 2.222742 -2.495509 220 208 175
-1.217164 1.820304 -0.367077 216 126 12
-0.552611 2.166479 -0.064273 198 128 26
-1.152316 1.873970 -0.418605 255 238 62
-1.320305 2.545781 -1.214526 135 129 140
-1.199402 2.031657 -0.282984 217 148 30
-0.455929 1.665014 -0.269731 255 170 32
-0.446284 2.431837 -1.332170 17 16 17
-0.700328 1.926476 -1.087726 148 111 27
-1.206741 1.845392 -0.410996 133 62 6
-1.051704 1.730747 -0.774653 111 125 158
-0.791958 1.618271 -1.488514 157 103 14
-1.076503 1.740324 -0.677166 34 36 40
-0.716119 1.671411 -1.521779 85 64 15
-1.054358 1.941329 -1.510272 249 198 59
-0.431569 2.298780 -2.315821 91 101 103
-0.523160 2.509718 -1.266620 59 58 62
-1.207223 2.101126 -1.448720 173 129 29
-1.489450 2.953669 -0.835500 40 21 13
-1.249534 2.070791 -1.678673 224 152 31
-1.470889 2.953553 -0.860008 104 74 62
-1.273634 1.768970 -2.157594 211 212 232
-1.401800 2.980281 -0.875894 224 210 174
-1.293906 2.587821 -1.201446 8 7 8
-1.429700 2.981787 -0.754724 148 98 73
-1.319157 2.055098 -1.963894 24 20 17
-1.454756 3.049663 -0.659084 107 75 63
-1.339473 2.381031 -1.250386 132 128 142
-0.081929 3.224169 -0.353778 44 30 25
-1.306852 3.162480 -0.513820 209 194 157
-1.176304 1.896874 -0.402986 255 221 57
-1.414745 2.483499 -1.916291 19 21 24
-0.581683 1.981635 -1.957791 0 0 0
-1.452580 3.151031 -0.498455 200 185 148
-1.396050 3.011263 -0.810212 212 198 162
-1.444894 2.362428 -2.227237 191 176 137
-1.392292 3.044168 -0.748665 214 199 164
-1.495236 2.552630 -1.809717 196 184 147
-0.710106 2.786943 -1.302967 190 168 128
-1.525403 3.026625 -0.666910 78 47 37
-1.312096 3.108014 -0.615967 228 215 179
-0.719960 3.237391 -0.308216 123 109 86
-1.635296 2.223145 -2.496790 74 79 79
-0.720740 3.237649 -0.307471 123 109 86
-0.430941 1.632574 -0.269590 255 252 72
-0.418919 2.517406 -1.885180 78 88 88
-0.707376 1.991266 -0.822346 122 75 10
-0.714813 2.814889 -1.245054 220 200 155
-0.708087 2.845897 -1.175612 236 211 162
-0.774618 1.916474 -1.078736 147 109 24
-0.102366 3.084454 -0.700607 87 84 80
-0.999043 1.386859 -1.664129 255 219 57
-0.990439 1.532320 -1.213978 0 0 0
-1.084459 1.987410 -0.714822 171 129 31
-0.515264 2.137989 -1.429224 115 73 12
-1.060917 1.931004 -1.515030 34 26 13
-0.413073 2.659516 -1.319230 12 10 7
-1.222349 1.845473 -1.798063 194 197 218
-0.773602 1.534712 -1.962033 152 103 20
-1.286253 1.825607 -1.794157 169 110 35
-1.006879 1.238180 -1.589477 0 0 0
-1.268869 1.995990 -2.100638 40 30 15
-0.403931 2.202960 -2.548276 128 130 123
-1.367434 3.097608 -0.625464 227 211 175
-1.033115 1.511436 -1.719310 0 0 0
-1.400733 2.670391 -1.223468 23 21 19
-0.330857 2.116970 -2.668081 137 95 75
-1.389974 2.747087 -1.336622 15 15 17
-1.454352 3.147307 -0.491010 65 42 28
-1.392472 2.738841 -1.367288 15 17 22
-1.526380 3.129609 -0.510208 155 106 82
-1.414642 2.974214 -0.901928 204 188 151
-0.529042 2.207748 -2.332633 0 0 0
-1.417696 2.514372 -1.861048 208 190 151
-0.780910 1.668321 -0.488139 100 111 138
-1.427205 2.561023 -1.746426 11 13 19
-1.140924 1.722050 -0.502743 128 103 25
-1.430495 2.542946 -1.795304 11 13 18
-1.493387 2.896665 -1.018449 102 68 52
-1.436042 2.574034 -1.737375 213 198 158
-1.394897 2.156320 -2.183518 18 20 23
-0.514987 2.321492 -2.641100 99 104 98
-1.646305 1.539706 -1.124257 124 80 60
-1.160933 2.226315 -2.549823 102 99 85
-1.646305 1.539706 -1.124257 124 80 60
-1.300524 2.183939 -2.580618 142 136 118
-0.435480 1.948169 -0.256999 244 137 19
-0.694382 1.896834 -1.120931 139 93 14
-0.848949 1.263765 -1.930979 255 223 71
-1.396188 3.875619 -1.439864 221 179 149
-0.937745 2.038293 -1.289870 166 137 47
-1.361762 2.298807 -2.324030 112 109 96
-0.948899 2.141952 -2.615337 90 98 96
-1.088958 1.726727 -0.679525 172 173 191
-0.604106 1.690088 -0.779443 241 205 65
-1.200270 2.180448 -0.017835 190 132 35
-0.518266 2.211951 -2.330370 0 0 0
-1.233227 1.872778 -1.688641 70 62 67
-1.369921 2.161539 -2.068646 144 138 152
-1.361999 2.028376 -1.979626 37 34 36
-1.369921 2.161539 -2.068646 144 138 152
-1.402621 2.748374 -1.352102 217 201 162
-0.489718 2.249755 -2.453192 75 73 63
-1.450580 2.510662 -1.880087 210 197 159
-1.626554 2.183890 -2.585157 119 116 98
-1.466533 2.958674 -0.853100 106 74 62
-1.474051 2.854510 -1.152335 140 123 94
-1.366489 1.923133 -1.835069 13 9 8
-0.399264 2.126419 -0.140119 255 227 70
-1.534790 2.659673 -1.479079 34 18 12
-0.635963 1.634544 -0.454002 175 186 213
-0.393506 1.660197 -0.317574 0 0 0
-0.825931 1.623150 -0.440754 188 201 231
-0.781321 2.031945 -0.586045 153 108 28
-0.762675 2.090034 -1.057136 78 73 75
-0.781321 2.031945 -0.586045 153 108 28
-0.921835 2.036421 -1.285009 137 109 40
-0.735361 1.516982 -1.490553 239 201 65
-1.017960 1.764906 -2.123966 189 157 46
-1.125161 1.751519 -0.375114 169 136 34
-1.136856 1.783908 -2.146444 84 54 7
-1.099243 1.570155 -1.463997 255 243 60
-0.344321 2.260009 -2.427551 34 23 18
-1.206450 1.616756 -1.997875 142 146 159
-0.449452 2.214865 -2.514182 128 130 123
-1.205312 1.936508 -1.589274 185 144 38
-0.523782 1.849307 -0.894817 0 0 0
-1.235726 2.007134 -1.519323 182 132 62
-0.514466 2.274205 -2.386620 88 96 94
-1.254986 1.843637 -1.814294 250 204 55
-1.487913 2.760812 -1.324831 65 37 24
-1.270252 1.759954 -2.177636 208 209 229
-1.671906 3.316014 -0.728189 0 0 0
-1.315454 3.185530 -0.442984 229 214 174
-1.407876 2.179354 -2.601280 136 132 113
-1.315454 3.185530 -0.442984 229 214 174
-1.096411 1.330116 -1.807369 255 235 84
-1.383507 2.017468 -2.033910 25 32 42
-1.382268 2.546643 -1.104149 9 9 10
-1.401049 2.875151 -1.091594 128 119 102
-1.397541 2.156825 -2.174462 19 22 25
-1.400157 2.760889 -1.292051 217 204 164
-0.927754 1.996545 -2.324897 59 60 54
-1.419686 2.687547 -1.496412 213 197 160
-1.015385 1.644027 -0.464128 95 111 146
-1.435156 2.599751 -1.689413 214 198 161
-0.754683 1.605954 -2.062730 79 96 129
-1.605644 2.272138 -2.413189 217 197 155
-0.438847 2.255437 -2.252858 77 85 85
-1.699903 2.210432 -2.456707 86 57 48
-0.301554 2.284770 -2.252233 49 31 22
-1.486035 1.496350 -2.670624 127 107 101
-0.431810 2.130054 -0.142569 201 145 45
-1.213171 1.821561 -0.811104 84 84 94
-0.431275 2.131554 -0.142593 201 145 45
-1.235471 1.839568 -0.810811 93 98 119
-0.588018 1.635670 -0.491003 104 113 138
-1.326541 2.399524 -1.361450 36 39 42
-0.617909 1.635171 -0.446457 77 73 73
-1.473050 1.431937 -2.572308 125 99 91
-0.538572 1.861735 -0.923032 82 97 132
-0.692032 1.943142 -1.151292 86 82 90
-1.134972 1.341381 -1.918702 121 84 17
-0.692032 1.943142 -1.151292 86 82 90
-0.420890 2.451436 -1.214550 31 37 48
-0.906132 1.270164 -1.928068 255 227 71
-0.806784 1.714761 -2.129218 106 82 18
-0.849000 2.037243 -1.295368 136 109 41
-0.261786 2.510309 -1.820292 23 14 10
-1.125947 2.083564 -0.186074 170 105 34
-1.478552 2.185853 -2.078502 209 194 162
-1.000738 1.938071 -1.507224 245 198 60
-0.273396 2.275062 -2.263438 53 38 33
-0.999320 1.996977 -1.414739 184 143 45
-0.435807 2.222620 -2.532573 98 101 89
-1.272610 1.652184 -0.236343 255 249 78
-1.307239 1.829349 -0.387267 0 0 0
-1.278638 1.674637 -0.285547 150 128 47
-1.309274 1.996099 -0.285452 0 0 0
-1.199927 1.945366 -1.075998 82 74 73
-1.588147 2.505179 -1.702224 111 78 66
-1.207547 1.919619 -1.119914 116 108 99
-0.859668 1.773921 -2.187204 109 97 28
-1.198562 1.608943 -2.044616 127 2 1
-1.308522 1.985257 -2.241280 26 28 31
-1.451868 2.532635 -1.827097 215 200 160
-0.443005 2.215388 -2.266931 69 78 81
-1.515918 2.941446 -0.898798 51 38 37
-0.283297 2.278161 -2.240177 108 77 65
-1.513249 2.935267 -0.896353 51 38 37
-1.510739 2.257802 -2.233127 232 220 189
-1.538369 2.928818 -0.913293 109 73 58
-1.596832 2.299708 -2.280860 171 156 153
-1.568183 2.711618 -1.396954 53 35 34
-0.986886 2.282448 -2.331543 69 69 62
-1.611516 2.511990 -1.750131 105 72 58
-1.391627 2.284234 -2.375013 183 174 146
-0.613122 1.632406 -0.468164 50 53 61
-0.398194 2.238425 -2.474514 80 83 73
-0.615493 1.631854 -0.469806 50 53 61
-0.443633 2.213480 -2.514849 129 131 126
-0.744301 2.159936 -0.039963 255 228 70
-1.048256 1.698591 -0.554466 17 25 38
-0.879293 2.130565 -0.100455 0 0 0
-1.475282 2.263033 -2.249420 16 14 13
-0.853499 2.103825 -1.090761 144 118 40
-1.033307 2.267227 -2.347688 114 108 91
-0.832663 2.298223 -2.351546 66 68 64
-1.168394 1.595715 -1.492432 146 147 154
-0.547179 2.286594 -2.376954 67 74 74
-1.242417 2.188751 -0.004604 255 231 71
-0.547179 2.286594 -2.376954 67 74 74
-1.251570 2.052941 -1.694426 191 113 21
-1.430629 2.182432 -2.604681 218 209 175
-1.317938 2.110032 -1.693633 98 61 12
-0.272785 2.131087 -2.696409 0 0 0
-0.437918 1.684198 -0.358008 141 127 51
-1.344238 2.890316 -1.063105 231 215 174
-0.934005 1.664763 -0.445570 100 112 140
-1.500094 3.104820 -0.515441 150 101 75
-1.292370 1.837907 -2.201160 11 9 7
-1.500634 2.652115 -1.538258 108 73 57
-0.498208 1.721395 -0.302581 141 125 50
-0.417597 1.621061 -0.335982 0 0 0
-0.959841 1.826311 -1.486372 248 214 72
-0.467658 1.671260 -0.383901 143 127 39
-0.959841 1.826311 -1.486372 248 214 72
-0.862098 1.312005 -1.824534 255 232 72
-0.904694 1.866073 -0.502565 127 111 38
-0.916619 1.475717 -1.496512 255 236 75
-1.039660 2.239958 -2.412876 126 121 103
-0.923010 1.446638 -1.562780 255 241 77
-0.640727 1.707322 -0.859532 95 52 5
-1.235588 1.987473 -0.231215 124 102 39
-0.950430 1.959289 -1.412621 211 169 45
-0.768327 1.803157 -0.097056 127 113 46
-1.286287 1.808899 -0.468035 246 226 178
-0.855603 1.273621 -1.917189 159 132 42
-1.438243 2.700153 -1.521357 218 202 164
-0.823109 1.457526 -1.533028 159 128 42
-1.523562 2.454769 -1.992893 101 70 58
-0.486210 2.315332 -2.253932 54 60 60
-1.530996 2.426518 -2.062049 99 70 58
-1.226558 2.084432 -0.123214 154 98 19
-0.684366 1.657455 -0.411884 111 91 21
-0.585740 2.366087 -1.264768 13 10 8
-0.757918 1.439610 -1.571911 255 232 72
-0.682714 2.585402 -1.803114 5 5 8
-0.865536 2.165511 -0.103496 0 0 0
-0.476655 2.584875 -1.188423 134 138 154
-0.865536 2.165511 -0.103496 0 0 0
-1.037232 2.624125 0.117687 51 31 22
-0.713949 2.192874 -1.178767 207 176 59
-0.845356 1.265372 -1.930549 252 227 79
-0.806944 2.012733 -1.295423 165 137 47
-0.936940 1.392493 -1.631601 255 220 62
-0.815405 1.948835 -1.477314 255 215 65
-0.457851 2.198351 -2.569280 88 86 72
-1.094988 1.338887 -1.732511 255 246 68
-0.480722 2.262676 -2.313314 3 3 5
-1.466621 2.559042 -1.774090 220 204 164
-0.492947 2.275621 -2.295135 57 60 56
-1.474325 2.501658 -1.903748 213 198 159
-0.465828 2.295694 -2.280786 77 86 88
-1.497760 2.375130 -2.163104 219 203 166
-1.464158 2.890412 -1.083003 118 111 97
-1.599841 2.171525 -2.618471 0 0 0
-1.509402 2.927802 -0.868538 144 98 73
-0.677048 1.636164 -0.453021 191 198 222
-0.796657 2.903455 -1.001349 220 199 160
-0.689774 1.969301 -1.419722 224 187 59
-1.546036 3.012815 -0.680385 110 68 48
-0.924688 1.950417 -1.492294 254 202 60
-1.487697 3.078474 -0.621144 144 93 65
-1.523603 2.247581 -2.244190 217 203 165
-0.758251 1.530355 -1.493314 255 234 59
-0.565078 2.174072 -0.079682 193 135 39
-0.753836 1.601603 -1.495676 255 236 59
-1.228273 1.780219 -0.310293 170 105 17
-0.867958 1.979402 -1.430932 40 31 14
-1.204753 1.815531 -0.376381 128 74 10
-1.213580 2.200568 -0.036530 181 127 40
-0.480415 2.091606 -2.373631 127 130 125
-1.097840 1.986459 -1.543660 255 236 59
-0.500703 2.164732 -2.342054 123 127 120
-1.443983 2.173909 -2.246585 8 7 7
-0.495759 2.217958 -2.320209 107 112 108
-0.637049 1.707483 -0.813145 237 205 67
-0.272391 2.443220 -1.985635 30 19 15
-1.149216 1.661092 -1.466469 255 250 62
-0.544234 2.389438 -1.230429 92 62 8
-0.671245 2.079407 -1.334290 32 31 32
-0.610868 2.495313 -1.342305 70 55 35
-1.293249 2.548737 -1.179996 42 44 49
-0.582326 2.629529 -1.292780 119 88 18
-1.212841 1.992642 -1.503093 255 229 68
-0.582326 2.629529 -1.292780 119 88 18
-0.963159 1.527621 -1.760695 255 210 54
-0.795868 1.471557 -1.534292 127 77 11
-0.853654 3.180772 -0.711137 116 104 28
-1.205219 1.596653 -1.493208 222 214 230
-0.892497 1.641998 -0.432911 21 28 40
-0.291956 2.353655 -2.070664 44 27 20
-0.836148 1.642799 -0.438747 17 21 27
-0.341541 2.397783 -2.054510 40 35 41
-1.606522 2.252935 -2.429178 206 195 163
-1.483743 2.993753 -0.693194 38 21 13
-0.236893 2.273996 -2.307083 0 0 0
-1.480729 3.035357 -0.678389 39 20 14
-1.448745 2.787986 -1.290651 202 186 150
-1.060459 3.707493 -0.820041 0 0 0
-0.997534 1.364648 -1.693251 208 186 57
-0.779667 1.498476 -1.497955 255 228 61
-0.711201 1.991855 -0.807563 176 131 37
-0.412807 2.546375 -1.815706 70 81 82
-1.078584 1.741333 -0.713276 163 160 173
-1.428471 3.018203 -0.694616 152 101 73
-0.673477 2.986411 -0.860897 228 213 174
-1.186481 2.069563 -0.237522 251 198 53
-0.640242 2.812528 -1.245886 239 211 161
-1.135942 2.076778 -0.235591 255 214 58
-0.431744 2.762904 -1.344720 194 178 141
-0.740436 1.711958 -0.141691 213 131 23
-1.239222 1.795004 -0.136966 255 255 83
-0.714350 2.056877 -0.171595 214 133 23
-0.830665 2.921945 -0.959230 252 227 175
-1.595846 2.514339 -1.739038 38 25 23
-0.147755 2.905921 -0.924213 103 71 56
-1.226511 1.990000 -0.330316 152 97 20
0.014061 3.001810 -0.856808 0 0 0
-0.868982 3.144123 -0.370789 201 119 36
-0.331954 2.604652 -1.638983 89 98 96
-1.361708 3.231371 -0.340777 234 218 182
-0.781329 3.169784 -0.283249 255 221 65
-1.155564 1.999136 -0.398438 255 235 62
-0.947429 1.495888 -1.453371 254 222 70
-0.657781 3.111488 -0.590988 231 216 177
-0.874961 1.964217 -1.130815 123 96 23
-0.774189 1.407920 -1.843343 88 40 4
-0.785987 2.006247 -1.396249 213 176 58
-0.873734 1.318103 -1.822425 255 234 74
-0.959072 2.239659 -0.866304 172 127 32
-1.228467 2.144672 -0.114200 230 146 18
-0.984465 1.336143 -1.773470 155 124 41
-0.698446 1.670369 -1.528960 200 200 218
-0.939192 1.944217 -1.520620 248 201 61
-0.696666 1.668910 -1.527896 200 200 218
-0.715837 2.067767 -1.024216 107 71 12
-0.557659 1.928633 -1.062977 68 70 88
-0.599892 2.094928 -0.807626 123 86 15
-0.764014 1.328140 -1.808219 255 226 70
-0.614626 2.019437 -1.535882 115 123 142
-0.719874 1.615725 -2.014886 76 98 136
-0.614626 2.019437 -1.535882 115 123 142
-0.936266 2.159728 -2.578856 121 121 111
-0.737386 2.261926 -0.846557 170 128 36
-0.304052 2.866263 -1.119567 198 180 144
-0.548435 2.205896 -1.980392 37 40 51
-0.152166 2.939054 -0.907546 37 26 27
-0.825667 2.794031 -1.213086 114 99 80
-0.545223 1.737674 -0.417846 153 126 33
-0.768548 2.801742 -1.257851 126 109 86
-1.194852 2.019316 -0.321678 205 124 16
-0.808897 1.968102 -1.458479 159 121 33
-1.198223 2.093762 -0.117341 255 255 84
-0.172589 2.860772 -1.032021 41 32 33
-0.761570 1.486836 -1.978880 93 64 10
-0.792217 1.530161 -1.930380 147 101 23
-1.234461 1.987498 -0.189468 200 123 19
-0.831183 1.843271 -1.784428 144 107 23
-1.151688 2.110515 -0.153373 177 113 28
-0.606232 2.067597 -0.808587 106 84 20
-0.606232 2.067597 -0.808587 106 84 20
-1.085484 1.746222 -0.744494 188 192 215
-0.695533 1.756427 -2.190326 62 60 54
-0.752178 2.125040 -0.158052 255 232 77
-0.580144 1.893196 -1.702961 103 89 26
-1.136751 2.018958 -1.490744 136 74 5
-0.789699 2.279373 -0.835229 169 122 32
-0.921765 2.041141 -1.288777 127 98 30
-0.745561 2.456980 -0.941888 74 81 105
-0.782972 1.923509 -1.525715 255 220 58
-1.523511 2.830640 -1.161970 231 212 173
-0.333899 2.509177 -1.342695 0 0 0
-0.910380 2.174471 -2.580070 75 80 79
-1.516877 2.844106 -1.146824 61 39 24
-0.919294 2.184248 -2.595448 75 80 79
-0.540078 2.439062 -1.195246 81 62 12
-0.322250 2.637946 -1.540393 57 44 41
-1.030653 2.354111 -2.974857 9 11 14
-1.268885 1.816249 -0.421458 155 131 38
-0.493880 2.276649 -2.305432 73 82 81
-1.162535 2.100804 -0.177423 255 213 61
-0.479916 2.472740 -1.334303 34 35 45
-0.904172 1.814757 -1.004716 62 44 6
-1.198789 1.691555 -0.221634 242 183 44
-0.882448 2.069688 -1.235110 167 137 47
-0.779974 1.456040 -1.674211 0 0 0
-1.049961 2.150678 -2.621258 134 133 123
-0.610547 1.740469 -0.774311 106 76 12
-0.783693 1.907069 -1.530068 255 222 58
-0.278938 3.030295 -0.741976 222 207 168
-0.602199 2.264895 -1.170651 87 70 24
-1.211574 1.642985 -0.260880 141 117 30
-0.521787 2.118717 -2.332989 1 2 3
-1.054847 2.133924 -0.127649 255 233 69
-0.485599 2.177915 -2.342475 7 8 11
-0.540397 2.345541 -2.136965 2 4 6
-0.787928 2.670847 -1.008692 130 95 26
-0.640696 1.924312 -2.232892 111 113 104
-0.893049 1.259693 -1.759892 0 0 0
-1.079905 1.414081 -1.613414 255 232 72
-0.757052 1.335280 -1.930649 105 92 27
-1.090717 1.348278 -1.743386 255 235 72
-1.257927 2.129465 -0.108370 0 0 0
-1.036176 1.769622 -1.549255 255 237 73
-0.712509 1.670066 -1.518354 103 81 19
-0.730674 1.918320 -1.098571 205 176 58
-0.704623 1.749273 -2.084446 111 99 32
-0.420263 2.727071 -1.409896 9 10 10
-0.931195 2.628281 -0.979288 34 32 26
-0.795591 1.643435 -0.425590 215 223 250
-1.518114 2.870257 -1.104779 61 39 24
-0.644131 2.142077 -0.129458 0 0 0
-1.511116 2.938502 -0.898026 32 19 15
-0.644131 2.142077 -0.129458 0 0 0
-1.451267 2.906399 -1.031391 63 43 29
-0.749338 2.772639 -1.319551 59 52 44
-0.566621 2.161395 -0.077895 175 116 35
-0.737763 2.969249 -0.880658 232 216 177
-1.055019 1.919556 -1.545671 45 45 49
-0.728052 3.109026 -0.604489 230 216 179
-0.614995 1.916842 -0.619370 66 72 93
-0.799542 1.751876 -2.040177 129 71 5
-0.697211 1.944384 -1.544211 123 91 34
-0.808034 2.163717 0.051769 0 0 0
-0.735552 2.293610 -0.913173 25 27 39
-0.983503 1.486885 -1.730578 215 9 1
-0.346490 2.489624 -1.899819 35 24 19
-0.434489 2.245574 -2.363306 104 113 111
-1.254723 1.866014 -0.252776 202 118 11
-0.870024 2.115813 -1.168486 201 175 60
-0.791318 2.457319 -0.915875 14 15 18
-1.242130 1.691963 -0.210743 189 120 18
-0.445479 2.420621 -2.019416 1 2 2
-1.242130 1.691963 -0.210743 189 120 18
-0.143866 3.133771 -0.434146 230 213 175
-1.216276 1.945790 -0.199590 201 128 18
-0.735810 2.490620 -0.983214 51 36 36
-1.183416 2.150414 -0.120867 150 108 23
-0.724491 3.217153 -0.326711 137 127 103
-1.172809 2.081261 -0.239788 254 208 53
-0.686521 2.203680 -1.698342 110 73 13
-1.198937 1.754740 -0.729213 209 214 236
-0.479964 2.643933 -1.396773 65 52 57
-1.206117 1.940354 -1.103924 241 207 85
-1.088707 1.474191 -1.643046 255 223 70
-0.907202 1.531846 -0.896631 0 0 0
-1.044427 1.645700 -1.452046 137 90 13
-0.433579 2.052944 -0.367839 102 89 25
-0.646073 1.718268 -0.763097 253 209 61
-0.746022 1.564744 -1.498628 255 226 60
-0.648356 1.950518 -0.658030 69 66 51
-0.714389 1.654372 -1.517263 181 187 207
-0.866609 1.811996 -1.365907 45 33 6
-1.237562 1.918407 -1.021877 0 0 0
-0.609622 1.978994 -0.630047 70 76 96
-1.198175 1.666405 -0.221500 182 119 20
-0.793085 1.494293 -1.513930 221 185 57
-1.198175 1.666405 -0.221500 182 119 20
-0.776122 1.517156 -1.478403 255 216 58
-1.241071 1.685095 -0.214930 167 90 6
-1.237222 1.989402 -0.133827 255 244 77
-0.727558 2.959206 -0.938816 109 102 85
-0.692758 1.704519 -0.713190 183 192 221
-0.687321 3.079663 -0.766119 208 193 156
-0.692758 1.704519 -0.713190 183 192 221
-0.727192 1.881308 -1.529014 255 218 59
-0.666835 1.736023 -0.724019 21 16 7
-0.672531 3.023492 -0.823323 122 114 93
-1.222697 2.073295 -0.112313 255 247 82
-0.677727 1.743572 -0.753233 25 18 5
-0.643964 1.931438 -1.584947 118 108 54
-0.763601 1.392481 -1.897282 103 90 27
-0.746760 1.544217 -1.491452 133 86 12
-0.947208 2.141293 -2.610764 88 96 94
-0.761251 1.612439 -1.488224 255 231 74
-0.545901 2.369029 -1.314223 78 54 7
-0.539106 1.850487 -0.886742 9 8 9
-0.545901 2.369029 -1.314223 78 54 7
-0.656509 1.651003 -1.519397 208 206 223
-0.496043 2.323232 -1.273385 3 4 7
-0.598289 1.983701 -0.633985 68 64 71
-0.783681 1.662696 -1.985398 112 87 72
-0.463485 2.398701 -1.332750 52 62 86
-0.547717 1.922466 -1.084388 11 10 12
-0.704889 2.095979 -2.222509 6 5 2
-0.720681 1.663900 -1.999960 99 85 86
-0.713090 2.114491 -2.269642 25 21 8
-0.797780 1.836652 -1.822016 99 90 80
-0.541861 2.224960 -1.724050 88 74 18
-0.752167 1.981990 -1.508218 138 79 10
-0.473265 2.310907 -1.476730 18 24 36
-0.594723 1.871702 -1.810220 105 91 27
-0.575321 2.017268 -2.031327 52 66 93
-0.580101 2.041910 -1.545887 64 71 94
-0.658957 1.886644 -2.244015 26 26 33
-0.525271 2.271842 -1.893124 23 28 39
-0.589903 2.213558 -1.155543 75 77 77
-0.406012 2.714195 -1.426687 54 62 60
-0.599704 2.234463 -1.145792 139 109 24
-0.406012 2.714195 -1.426687 54 62 60
-0.548169 2.221526 -1.233448 65 74 100
-0.485896 2.369827 -2.169739 50 60 62
-0.632956 2.187451 -1.741548 84 75 20
-0.475019 2.335395 -2.238724 55 62 61
-0.798181 2.298058 -1.701955 66 50 7
-0.264854 2.650884 -1.537804 73 54 48
-0.777484 2.306337 -1.629399 86 65 11
-0.431273 2.214194 -2.529443 96 105 102
-0.529090 2.086049 -2.152274 59 65 89
-0.330986 2.304313 -2.204511 80 57 48
-0.517522 2.212256 -2.330730 3 4 7
-1.457685 3.018234 -0.697509 149 98 67
-0.549542 2.121938 -2.189119 57 65 87
-0.304473 2.231259 -2.480212 137 94 72
-0.477060 2.119992 -2.264912 80 88 87
-0.557297 2.401429 -1.611495 58 36 4
-0.530056 2.149691 -2.185483 61 69 93
-1.199147 2.180379 -0.015462 192 132 34
-0.183583 2.827934 -1.168973 37 29 31
-1.455631 2.924344 -0.935955 44 24 16
-1.119906 1.750143 -0.736629 163 123 33
-0.183583 2.827934 -1.168973 37 29 31
-0.476742 2.492249 -1.345623 54 65 92
-1.445150 2.967446 -0.839347 27 14 10
-0.864709 1.844079 -0.114213 0 0 0
-0.261454 2.362628 -2.071109 41 34 35
-1.406368 3.082702 -0.650528 62 42 29
-0.486873 2.149055 -2.346090 10 8 9
-0.952424 2.142266 -0.137156 194 126 21
-0.362785 2.158763 -2.616767 165 154 132
-0.737854 2.651013 -0.999844 180 177 188
-1.015707 1.954644 -0.638308 150 126 34
-1.247746 1.918406 -1.051366 0 0 0
-0.485881 2.625176 -1.335864 61 67 90
-0.544029 2.193040 -2.331299 114 116 107
-1.094345 1.502934 -1.449012 248 165 26
-0.645293 1.666744 -0.358822 123 100 21
-0.478261 2.668684 -1.399497 48 55 74
-0.547614 2.247553 -2.169573 59 69 95
-1.085302 1.956937 -1.494323 230 131 11
-1.083487 1.847736 -1.490597 255 233 60
-0.329600 2.512777 -1.874510 85 94 94
-0.557924 2.224058 -2.280298 47 58 82
-0.684728 1.730093 -0.742822 113 109 118
-0.828613 1.451333 -1.533896 174 141 49
-0.597229 1.757056 -0.815478 23 22 28
-0.468736 2.484763 -1.287458 33 34 48
-0.894842 1.363659 -1.713406 255 219 68
-0.562035 1.451978 -0.907873 198 164 55
-3.101054 2.438473 -0.343287 255 228 68
-1.429809 3.076906 -0.611726 45 25 16
-0.816216 2.083281 -1.113090 132 110 42
-0.535290 2.222672 -2.324845 113 115 109
-0.403493 1.911777 -0.222375 116 93 24
-0.497441 2.223423 -2.332479 117 118 112
-0.808968 1.968881 -1.443957 242 199 56
-0.815168 1.930420 -1.497622 255 206 62
-0.758507 1.639881 -1.502658 255 242 75
-0.468208 2.221622 -2.340771 113 116 111
-0.789802 3.001917 -0.792029 102 99 87
-0.767211 2.961090 -0.894181 85 76 61
-0.788015 1.518143 -2.032317 103 92 28
-0.481697 2.236610 -2.329165 9 10 11
-0.723586 1.491253 -1.497267 104 93 34
-0.767185 2.957913 -0.893556 85 76 61
-0.752553 1.923955 -1.527795 255 227 58
-0.506413 2.464786 -1.560044 61 69 93
-0.812690 1.931173 -1.541959 46 34 17
-0.717907 1.691390 -1.520393 94 70 14
-0.546371 2.322427 -2.192392 2 2 4
-0.801862 1.938549 -1.512151 151 101 29
-0.717907 1.691390 -1.520393 94 70 14
-0.916013 2.304619 -0.798297 27 18 3
-0.547531 2.345095 -2.119087 67 65 85
-0.762901 1.316240 -1.777465 127 114 39
-0.734702 2.957081 -0.944850 119 110 91
-0.485528 2.603704 -1.325352 28 32 47
-0.722629 1.709770 -1.505268 255 231 63
-0.736104 2.958336 -0.945981 119 110 91
-0.614026 2.167610 -1.182549 12 12 13
-0.474018 2.586245 -1.374481 57 64 87
-0.723292 2.967258 -0.909884 105 98 83
-0.730023 1.925191 -1.530194 255 224 58
-0.628958 1.886934 -2.347895 0 0 0
-0.601787 2.649112 -1.415271 61 67 88
-0.708892 1.940043 -1.537120 157 112 18
-0.475451 2.613829 -1.355913 32 36 48
-0.620527 2.568458 -1.228450 180 161 126
-0.684311 3.040133 -0.970946 117 109 91
-0.769266 2.609572 -1.032389 55 54 63
-0.270075 2.274813 -2.327833 54 38 31
-0.625929 2.277801 -1.563974 8 4 4
-0.564062 2.201977 -1.329717 62 53 44
-0.755321 2.580258 -1.136352 121 95 22
-0.259859 2.362598 -2.054342 73 52 42
-0.934895 2.161005 -2.581658 119 120 111
-0.384764 2.739089 -1.208999 87 88 81
-0.478944 2.676114 -1.432606 2 2 4
-0.175519 3.013758 -0.703980 147 100 75
-0.828588 2.827475 -1.143742 239 215 164
-0.683722 3.080710 -0.632670 134 121 93
-0.667817 1.979905 -2.134534 41 35 5
-0.185255 3.006552 -0.781374 101 69 57
-0.689175 2.993822 -0.829532 120 110 87
-0.194842 2.647214 -1.519563 26 15 11
-0.600623 1.953398 -2.034980 9 6 6
-0.513811 2.232155 -2.318936 3 4 7
-0.159289 2.788894 -1.170361 98 64 46
-0.260671 3.130211 -0.576272 103 98 87
-0.595254 2.328315 -2.749538 88 95 93
-0.151313 2.963291 -0.866987 100 68 52
-0.123556 2.911584 -0.918636 39 26 23
-0.421079 2.706303 -1.293594 2 2 3
-1.232607 2.080063 -0.134937 173 97 15
-0.834422 1.286815 -1.922930 119 99 27
-0.960535 2.086677 -0.180280 255 230 67
-0.666391 1.938446 -2.279922 0 0 0
-0.607728 1.740658 -0.773002 103 72 10
-0.407049 2.688783 -1.490867 3 5 8
-0.737710 2.176401 -0.037749 255 229 71
-0.735904 2.442368 -1.016022 112 91 23
-0.617529 1.818945 -0.783930 104 69 8
-0.415389 2.643259 -1.586119 5 7 11
-0.590823 1.635570 -0.460259 216 225 247
-0.561828 2.106816 -2.258874 46 52 70
-0.880950 1.522634 -1.768053 103 63 7
-0.417988 2.634518 -1.609749 6 9 16
-0.738182 2.427970 -0.953937 56 54 62
-0.621961 2.772673 -1.303308 72 66 56
-0.536406 2.025669 -1.541383 61 67 85
-0.680632 2.788763 -1.266422 77 66 53
-0.435432 1.978064 -0.170808 255 230 69
-0.518033 2.800796 -1.281756 104 105 94
-0.998669 2.234112 -0.993204 186 138 32
-0.680632 2.788763 -1.266422 77 66 53
-0.502914 2.299115 -2.254889 3 3 6
-0.534258 2.806764 -1.240588 115 108 92
-0.618346 2.033192 -2.008629 11 8 7
-0.396194 2.393755 -1.230460 13 12 9
-1.407747 3.264106 -0.305536 119 114 100
-0.247871 2.704484 -1.464689 149 98 69
-0.367284 1.840085 -3.260895 67 40 27
-0.477800 2.613838 -1.637369 30 36 38
-1.407747 3.264106 -0.305536 119 114 100
-0.696860 2.899863 -1.029977 157 151 133
-0.362833 1.871712 -3.195735 70 41 28
-0.286935 2.433024 -2.037411 29 18 15
-0.732803 2.487751 -1.137780 117 93 22
-0.520980 2.833509 -1.224498 101 104 94
-0.782499 2.295816 -0.996437 240 193 53
-0.796970 2.962099 -0.859435 113 105 90
-0.728769 2.533996 -1.137790 81 61 12
-0.423359 2.863147 -1.151667 116 117 104
-1.173805 2.496662 -0.900742 78 93 122
-0.412528 2.499320 -1.192479 41 48 67
-0.802984 2.629384 -1.125961 95 53 6
-0.423162 2.878643 -1.103873 224 211 175
-0.291463 2.065850 -2.839581 99 61 44
-0.250773 2.418574 -2.016773 28 19 17
0.149309 1.237206 0.343080 142 106 26
-0.378520 2.931543 -1.027854 224 211 177
-0.319949 2.137545 -2.616378 109 76 63
-0.393417 2.640679 -1.564120 65 76 77
-0.740063 2.600444 -1.206983 36 42 60
-0.311011 2.936018 -1.036961 222 211 176
-0.392744 2.174376 -2.564772 59 40 29
-0.443598 2.701452 -1.463719 3 3 5
-0.556764 2.371550 -1.227125 17 13 7
-1.039749 0.882237 -1.933572 138 149 178
-0.292746 2.145885 -2.643569 110 75 61
-0.419006 2.701403 -1.452059 60 65 65
-0.562372 2.399866 -1.221540 20 13 10
-0.921371 0.873530 -1.958504 157 156 148
-1.570990 2.680913 -1.250417 114 80 62
-0.340185 2.284331 -2.307841 47 31 26
-0.483870 0.898652 -2.111173 150 125 45
-1.599552 2.718510 -1.204314 126 86 66
-0.343601 2.342182 -2.110569 67 51 45
-0.613976 0.962245 -2.125981 120 100 26
-0.278504 2.208770 -2.504074 109 75 61
-0.440502 2.732512 -1.358183 1 2 3
-0.793074 2.840422 -1.232834 192 172 133
-0.613976 0.962245 -2.125981 120 100 26
-0.549055 2.348462 -2.085774 2 2 2
-0.401340 2.705339 -1.440966 4 5 8
-0.598296 2.453581 -0.082664 128 121 104
-0.571911 1.004394 -2.121119 151 130 48
-1.469308 2.764216 -1.128996 150 150 133
-0.385709 2.691216 -1.282624 10 10 9
-0.486542 2.537887 -1.260429 52 52 59
-1.062234 1.176411 -1.909111 0 0 0
-0.476640 2.451988 -1.445375 66 68 81
-0.706506 3.095557 -0.617227 140 124 96
-0.462954 2.590031 -1.701512 6 5 4
-1.069977 1.245575 -1.790547 90 83 79
-1.367685 2.757166 -1.228881 90 98 97
-0.252912 2.654685 -1.441811 95 65 52
-0.440889 2.670166 -1.503901 3 5 8
-1.127057 1.327276 -1.887058 182 138 37
-0.544703 2.798397 -1.229977 223 201 156
-0.611977 1.290005 -1.863363 240 192 53
-1.569372 2.900927 -0.919885 101 103 94
-0.156535 2.932393 -0.908865 42 27 23
-0.783103 3.057554 -0.666433 116 112 99
-0.578757 1.309139 -1.882699 92 92 103
-0.448001 2.502000 -1.341407 150 140 151
-0.197649 2.988408 -0.754978 34 24 20
-0.904099 3.200377 -0.405160 143 130 106
-0.575962 1.415736 -1.886398 23 23 25
-1.465536 2.897194 -0.948447 152 152 136
-0.260428 3.125269 -0.577540 106 101 90
-0.468473 2.562561 -1.373210 156 148 161
-0.260428 3.125269 -0.577540 106 101 90
-0.900340 3.234508 -0.341029 138 125 105
-0.833312 3.224106 -0.338381 122 118 103
-0.916863 1.572690 -1.757506 141 90 14
-0.485937 2.613217 -1.440146 74 79 96
-0.178383 3.139540 -0.463350 231 212 171
-0.761677 3.172877 -0.405058 126 121 108
-0.658650 1.769246 -0.882233 175 121 23
-0.243170 2.661980 -1.554791 41 25 20
-0.192676 3.177784 -0.460247 128 117 101
-0.635506 3.072400 -0.686562 123 115 97
-0.627515 1.646837 -1.717940 111 66 8
-0.734079 2.903205 -0.993531 166 144 114
-0.097196 3.117368 -0.456862 148 100 75
-0.635506 3.072400 -0.686562 123 115 97
-1.084414 1.944588 -0.842912 0 0 0
-0.371649 2.806515 -1.293551 114 111 98
-1.276819 1.649430 -0.238056 255 249 82
-0.763601 3.217063 -0.344731 128 124 109
-0.611724 1.866780 -0.864826 65 65 75
-0.641870 3.125113 -0.632132 128 119 100
-0.595508 1.795023 -1.235878 173 179 205
-0.291870 2.890728 -1.086422 226 212 174
-0.947914 1.298322 -1.646106 174 1 0
-0.641870 3.125113 -0.632132 128 119 100
-0.613302 1.906608 -0.864336 255 196 54
-0.307181 2.862413 -1.119913 218 199 159
-0.596464 1.701449 -1.870051 255 193 52
-0.093464 3.042864 -0.753156 87 88 83
-0.662806 1.826916 -1.400272 169 105 20
-0.285367 2.900863 -1.102803 116 115 103
-0.917659 1.324338 -1.754623 255 222 71
-0.113327 3.141590 -0.449642 52 36 37
-1.014625 1.374606 -1.640431 255 226 71
-0.640240 1.748204 -1.823757 115 72 12
-1.059086 0.981713 -1.921070 131 144 174
-1.184990 1.713663 -1.489452 0 0 0
-0.953196 1.328018 -1.693998 255 227 65
-0.989235 2.042046 -0.929766 127 80 19
-0.459617 0.913438 -2.220222 255 207 55
-0.762568 1.317067 -1.944657 0 0 0
-1.190486 1.553168 -1.475487 0 0 0
-0.664804 1.875988 -1.448994 181 112 19
-0.963027 1.529208 -1.426664 255 229 70
-0.648217 1.797388 -1.874241 109 68 10
-0.532036 1.106858 -2.262902 108 75 13
-1.011298 1.633070 -0.418392 189 201 230
-0.989741 2.110174 -0.959778 53 56 68
-1.116291 1.226852 -2.067665 144 127 50
-1.076997 1.737399 -0.748348 206 205 226
-1.118813 1.283619 -1.881358 45 44 50
-0.746306 1.406108 -1.616359 255 230 70
-0.756942 1.345415 -1.745545 255 228 71
-0.996964 2.150753 -0.960805 197 138 33
-0.652764 1.128739 -2.301353 128 88 18
-1.235462 1.920571 -1.073677 207 215 242
-0.986772 1.642077 -0.418035 5 5 7
-0.599717 1.935204 -1.688593 237 179 44
-1.062208 1.235450 -2.110601 43 46 57
-0.811459 1.516269 -1.940682 90 51 6
-0.991431 1.647055 -0.421254 5 5 7
-0.630734 2.088845 -0.955187 255 213 57
-0.601057 1.128733 -2.326229 126 88 18
-0.734498 1.453636 -1.570792 104 91 27
-1.014756 1.676360 -0.498885 21 17 14
-0.660505 2.051991 -1.234298 154 145 159
-1.101242 1.333641 -1.947140 177 133 34
-1.065370 1.779152 -1.491584 145 89 13
-0.746852 1.371548 -1.675067 255 228 71
-1.155463 2.282415 -0.944056 0 0 0
-1.063397 1.330819 -2.055544 183 132 35
-0.795330 1.563449 -1.946698 103 58 7
-1.087623 1.711114 -1.476421 255 235 63
-1.000961 2.237849 -1.022140 55 57 67
-1.063397 1.330819 -2.055544 183 132 35
-1.111273 1.900708 -1.099943 124 92 20
-1.147529 1.836251 -1.703554 167 174 194
-0.548799 2.065743 -1.447374 255 197 54
-1.067132 1.365028 -2.061858 129 76 10
-1.172833 2.060025 -0.290538 183 106 16
-1.073196 1.771128 -1.469231 255 234 63
-0.445259 2.000755 -2.211357 11 8 8
-1.055052 1.400461 -2.025690 186 133 37
-0.736934 1.600189 -2.073462 91 109 143
-1.027268 1.756512 -0.779955 43 46 59
-1.000106 2.372205 -0.998822 102 107 122
-0.640258 1.681039 -1.245828 71 72 85
-1.139361 2.041710 -0.324951 184 107 14
-1.262154 1.977009 -1.525812 197 205 230
-1.229313 2.434825 -0.940610 0 0 0
-0.665802 1.509473 -2.061214 94 55 5
-1.139361 2.041710 -0.324951 184 107 14
-1.176336 1.971468 -0.389904 255 225 60
-0.535316 2.114581 -2.244194 124 118 130
-0.655442 1.827089 -0.796508 162 119 25
-1.126715 2.045005 -1.095776 249 186 45
-1.081360 1.852582 -1.485352 255 231 61
-1.001269 2.430732 -0.969649 95 113 147
-0.670625 1.838407 -0.777432 240 189 49
-1.131344 2.064212 -0.255711 191 111 17
-1.122050 1.931019 -1.049047 129 85 12
-0.606059 1.724636 -1.259349 84 83 90
-1.131344 2.064212 -0.255711 191 111 17
-1.061212 1.881528 -1.542817 136 91 13
-0.292118 2.072994 -2.736712 149 99 70
-0.846143 1.746730 -1.878694 123 97 25
-1.123763 2.086308 -0.186442 167 107 23
-0.808271 1.635177 -1.502950 165 108 17
-0.292118 2.072994 -2.736712 149 99 70
-0.632110 1.738477 -1.900389 169 105 18
-1.129927 2.093225 -0.190483 167 107 23
-0.801716 1.632070 -1.980191 105 56 6
-0.620804 2.409489 -1.008253 110 107 121
-0.631034 1.757497 -1.939879 255 195 53
-0.690424 1.630176 -2.046131 45 55 77
-1.126582 2.032858 -0.344799 255 221 62
-0.631828 2.456880 -1.015134 167 147 156
-0.784464 1.796820 -1.890377 16 8 2
-1.062146 2.064599 -0.262597 183 103 17
-1.115924 2.035892 -0.367018 193 114 16
-1.454696 2.730407 -1.239016 104 112 110
-0.617275 1.796507 -1.968211 254 196 53
-1.062146 2.064599 -0.262597 183 103 17
-0.714012 1.619619 -1.961029 77 95 130
-0.645143 1.843141 -1.914223 99 56 6
-0.782850 1.826639 -2.058563 230 178 43
-1.120767 2.057306 -0.276897 255 226 59
-0.486071 2.492469 -1.463952 145 137 148
-0.583415 1.862190 -1.924174 204 206 228
-1.011315 2.107978 -0.166973 203 120 28
-1.109386 2.044301 -1.111748 131 84 15
-0.446115 2.508286 -1.860108 12 10 8
-0.605848 1.953060 -1.647504 146 86 9
-3.302179 4.587883 -1.031374 154 103 21
-0.991307 1.935588 -1.074157 124 88 17
-0.836458 2.783144 -1.185206 132 123 101
-0.550844 1.999211 -1.539384 185 193 220
-1.114453 2.081739 -0.209015 255 225 60
-0.697639 2.740426 -1.327668 78 76 69
-0.594666 2.123540 -0.953503 83 83 105
-0.785036 2.000167 -1.338762 141 104 24
-0.664279 1.616615 -0.475456 63 78 110
-0.834201 2.816204 -1.124696 141 131 107
-0.562904 2.124335 -0.996361 62 66 81
-0.749034 1.977836 -1.517830 255 208 54
-1.130172 2.106924 -0.129452 255 237 107
-0.633293 2.746842 -1.334597 69 70 65
-1.060287 2.267128 -0.960765 158 122 28
-0.767857 1.999273 -1.517124 123 76 11
-1.210383 2.196291 -1.105989 210 212 228
-0.710121 2.782753 -1.276468 119 114 97
-0.575620 2.148118 -1.018326 143 139 156
-0.722750 1.977026 -2.356171 41 48 64
-1.094750 2.077134 -0.225258 186 115 23
-0.666568 2.895872 -1.089208 113 114 104
-0.641922 2.193263 -1.022716 147 90 27
-0.684449 1.950310 -2.280972 93 102 126
-0.724798 1.695667 -1.497021 255 230 61
-0.300481 2.749087 -1.349557 39 27 24
-0.541258 2.145732 -1.531934 255 236 60
-0.700281 1.933575 -1.086786 117 79 12
-0.323262 1.957245 -2.968692 152 103 78
-0.624102 1.885625 -1.102826 162 148 57
-0.820968 1.837593 -2.054213 130 78 9
-0.211578 2.960208 -1.033461 103 105 96
-0.916199 2.412589 -1.021982 71 51 7
-0.795063 2.100709 -0.182726 198 120 32
-1.043405 2.082251 -0.215133 255 235 86
-1.297093 0.747101 -2.045895 189 160 58
-0.916199 2.412589 -1.021982 71 51 7
-0.629696 1.961295 -0.642936 84 94 118
-1.023511 2.076055 -0.231081 192 130 59
-0.566079 2.208263 -2.330986 12 11 11
-0.551854 1.910101 -1.145507 99 116 153
-0.734811 1.837313 -2.048840 195 155 38
-0.902394 0.910555 -1.966837 7 8 13
-0.995558 2.101901 -0.184493 255 239 108
-1.249659 0.918224 -2.002861 139 127 53
-0.647276 2.504218 -1.046625 109 112 126
-0.604432 1.704807 -0.847551 104 91 27
-1.043855 1.019244 -1.899670 25 26 30
-0.695901 2.530734 -1.038495 56 58 65
-0.516339 2.111764 -2.403147 119 123 116
-1.425545 2.798401 -1.126235 99 99 86
-0.705287 2.260552 -1.163649 55 43 45
-3.120224 4.657426 -1.049098 255 238 109
-0.640700 1.003802 -2.107794 133 113 33
-1.448664 2.810022 -1.111803 130 132 124
-0.493909 2.090179 -2.214880 1 1 2
-0.429531 1.621015 -0.294548 255 249 80
-1.057306 1.147718 -1.850478 141 151 178
-1.363668 2.785281 -1.168480 112 116 111
-0.615926 2.169133 -1.183318 7 8 11
-0.620158 1.948535 -2.029959 97 87 25
-1.237498 1.252755 -1.789802 0 0 0
-1.363621 2.814506 -1.106517 121 125 118
-0.490926 2.109190 -2.200130 3 3 4
-0.549108 1.901489 -0.950034 138 105 23
-0.630367 1.253609 -2.141977 73 78 94
-1.294248 2.791090 -1.174861 111 114 107
-0.500383 2.171204 -2.599977 124 128 121
-1.377893 2.883504 -0.767052 255 226 68
-0.639901 1.720359 -1.238060 233 189 50
-1.211395 2.764927 -1.233839 108 104 91
-0.524431 2.183119 -2.344401 2 2 4
-0.569313 1.980796 -1.613761 43 58 85
-1.087322 1.649416 -1.915607 153 117 29
-0.399937 2.566360 -1.838691 104 69 50
-1.496083 3.226296 -0.383362 147 101 78
-0.782994 2.780954 -1.272982 119 113 95
-0.550448 2.253030 -2.288685 3 4 6
-0.587512 2.034205 -0.842234 40 49 71
-0.670463 1.868474 -1.407953 255 199 53
-0.773676 2.811424 -1.206821 132 124 104
-0.623951 2.243284 -1.160882 133 103 24
-0.587512 2.034205 -0.842234 40 49 71
